-0.0188999996 -0.0614000000 -0.0772999972
-0.0212999992 -0.0851999968 -0.0740000010
-0.0427000001 -0.0864999965 -0.0776999965
-0.0196000002 0.0549999997 -0.1076999977
-0.0195000004 0.1177999973 -0.1155000031
-0.1050999984 0.1120000035 0.1242000014
-0.0930000022 0.1130999997 0.1289000064
-0.0939999968 0.1270000041 0.1204999983
-0.1064999998 0.1261000037 0.1155999973
-0.1250000000 0.1093999967 0.1114000008
-0.1158000007 0.1108999997 0.1182999983
-0.1177000031 0.1247000024 0.1097000018
-0.1272999942 0.1226999983 0.1032000035
-0.1330000013 0.1066000015 0.1037999988
-0.1357000023 0.1198000014 0.0957999974
-0.1142000034 0.0961999968 0.1250000000
-0.1039000005 0.0973000005 0.1310999990
-0.0918999985 0.0984999985 0.1351000071
-0.1301999986 0.0934000015 0.1102000028
-0.1229000017 0.0951000005 0.1177000031
-0.0051000002 0.3296999931 0.0952000022
-0.0057000001 0.3350999951 0.1102999970
-0.0009000000 0.3779000044 0.1235999987
-0.0006000000 0.3822999895 0.1215000004
-0.0087000001 0.2469000071 0.0557999983
-0.0076000001 0.2572000027 0.0535000004
-0.0138999997 0.1138999984 0.1268000007
-0.0142000001 0.1466999948 0.1120999977
-0.0151000004 0.1605000049 0.1028999984
-0.0153000001 0.1762000024 0.0948000029
-0.0107000005 0.2366999984 0.0614000000
-0.0138999997 0.1306000054 0.1199999973
-0.1683000028 -0.3274999857 -0.0535000004
-0.1492000073 -0.3434999883 -0.0729999989
-0.1554999948 -0.3185999990 -0.0694999993
-0.1412000060 -0.3305999935 -0.0830999985
-0.1667000055 -0.2508000135 -0.0452000014
-0.1658000052 -0.2766000032 -0.0515000001
-0.1671999991 -0.2239000052 -0.0419999994
-0.1207000017 -0.3379999995 -0.0958999991
-0.0947000012 -0.3404999971 -0.1054999977
-0.0921000019 -0.3222999871 -0.1112999991
-0.1512999982 -0.2267999947 -0.0657000020
-0.1511999965 -0.2526000142 -0.0684999973
-0.1469999999 -0.3140000105 -0.0777999982
-0.1629000008 -0.2998000085 -0.0595000014
-0.1491000056 -0.2994000018 -0.0756999999
-0.1171000004 -0.3217999935 -0.1013000011
-0.1357000023 -0.3183999956 -0.0885000005
-0.0584999993 -0.1683000028 -0.0921000019
-0.0340999998 -0.1869000047 -0.1014000028
-0.0621000007 -0.1872999966 -0.1001999974
-0.1394000053 -0.1607999951 -0.0566999987
-0.1259000003 -0.1818999946 -0.0771000013
-0.1341000050 -0.3012000024 -0.0904999971
-0.1146000028 -0.3019999862 -0.1041999981
-0.0898000002 -0.3012999892 -0.1150999963
-0.0895999968 -0.2296999991 -0.1103999987
-0.0890000015 -0.2533999979 -0.1150999963
-0.1123000011 -0.2547999918 -0.1042999998
-0.1128000021 -0.2299000025 -0.1001000032
-0.1304000020 -0.2040999979 -0.0819000006
-0.1328999996 -0.2291000038 -0.0852999985
-0.0883999988 -0.2070000023 -0.1037999988
-0.1105000004 -0.2056999952 -0.0948999971
-0.1061000004 -0.1838999987 -0.0886000022
-0.1333000064 -0.2547999918 -0.0882000029
-0.0599000007 -0.2766999900 -0.1224000007
-0.0886999965 -0.2779999971 -0.1168000028
-0.0296000000 -0.2748999894 -0.1207000017
-0.0851999968 -0.1859000027 -0.0961000025
-0.0806000009 -0.1665000021 -0.0886000022
-0.0759000033 -0.1484999955 -0.0821999982
-0.0641999990 -0.0874999985 -0.0773999989
-0.1133999974 -0.5672000051 0.0925000012
0.0003000000 -0.3795999885 0.0346000008
-0.0006000000 -0.3698999882 0.0063999998
-0.1800000072 -0.2924999893 0.0648000017
-0.1888000071 -0.3093999922 -0.0099999998
-0.1771000028 -0.3034999967 -0.0377000012
-0.0229000002 -0.3822000027 0.1036000028
-0.0078999996 -0.3869999945 0.0806000009
-0.1605000049 -0.3014999926 0.0917000026
-0.1048000008 -0.3508999944 0.1278000027
-0.0015000000 -0.3860000074 0.0582000017
-0.1504999995 -0.2775999904 -0.0720999986
-0.1335999966 -0.2797000110 -0.0900000036
-0.1132000014 -0.2795999944 -0.1052000001
-0.0604999997 -0.2996000051 -0.1203999966
-0.0287999995 -0.2962999940 -0.1181999967
-0.0195000004 -0.3271000087 0.1275999993
-0.0166999996 -0.3197000027 0.1354999989
-0.0088000000 -0.3213000000 0.1356000006
-0.0083999997 -0.3332000077 0.1251000017
-0.1058999971 -0.2036000043 0.1208000034
-0.0842999965 -0.2099000067 0.1344999969
-0.0417999998 -0.2178999931 0.1529999971
-0.0222999994 -0.2197999954 0.1573999971
-0.1596000046 -0.1788000017 0.0650999993
-0.0625000000 -0.2145999968 0.1455000043
-0.1459999979 -0.1876000017 0.0863000005
-0.1271000057 -0.1963000000 0.1046999991
-0.0725999996 -1.0080000162 -0.0282000005
-0.0736000016 -1.0367000103 -0.0241000000
-0.0741000026 -1.0350999832 -0.0397000015
-0.0698999986 -1.0060000420 -0.0428999998
-0.0851000026 -1.0015000105 -0.0714000016
-0.0737999976 -1.0036000013 -0.0636000037
-0.0996999964 -1.0011999607 -0.0733999982
-0.0980999991 -1.0313999653 -0.0724999979
-0.1098000035 -1.0324000120 -0.0657000020
-0.1133000031 -1.0025999546 -0.0687000006
-0.1225000024 -1.0034999847 -0.0595000014
-0.1255999953 -1.0340000391 -0.0456000008
-0.1283999979 -1.0341000557 -0.0275999997
-0.1330000013 -1.0059000254 -0.0295000002
-0.1289000064 -1.0045000315 -0.0474999994
-0.1287000030 -1.0102000237 -0.0093000000
-0.1243000031 -1.0374000072 -0.0077000000
-0.1134999990 -1.0128999949 0.0017000000
-0.0785999969 -1.0108000040 -0.0129000004
-0.0773999989 -1.0384999514 -0.0071999999
-0.0841000006 -1.0314999819 -0.0713000000
-0.0747999996 -1.0333000422 -0.0606999993
-0.0688000023 -1.0053000450 -0.0533999987
-0.0741999969 -1.0341999531 -0.0500999987
-0.0728000030 -1.0636999607 -0.0344999991
-0.0683000013 -1.0638999939 -0.0185000002
-0.0829999968 -1.0601999760 -0.0715000033
-0.0780000016 -1.0616999865 -0.0573999994
-0.1064999998 -1.0607000589 -0.0634000003
-0.0965000018 -1.0598000288 -0.0738999993
-0.1262000054 -1.0622999668 -0.0445000008
-0.1185000017 -1.0332000256 -0.0566999987
-0.1171000004 -1.0615999699 -0.0548000000
-0.1287000030 -1.0614000559 -0.0263000000
-0.1234999970 -1.0628000498 -0.0034000000
-0.0725999996 -1.0642999411 0.0000000000
-0.0763999969 -1.0628000498 -0.0461999997
-0.1266999990 -1.1569000483 0.1550000012
-0.1195999980 -1.1577999592 0.1568000019
-0.1208999977 -1.1523000002 0.1556999981
-0.1254999936 -1.1524000168 0.1546999961
-0.0877000019 -1.1564999819 0.1659999937
-0.0759999976 -1.1596000195 0.1641999930
-0.0773999989 -1.1477999687 0.1665000021
-0.0857999995 -1.1462999582 0.1679999977
-0.1055999994 -1.1577999592 0.1650999933
-0.1136000007 -1.1576999426 0.1642999947
-0.1112999991 -1.1613999605 0.1612000018
-0.1062000021 -1.1611000299 0.1617999971
-0.1473000050 -1.1539000273 0.1246000007
-0.1527999938 -1.1545000076 0.1220000014
-0.1512999982 -1.1579999924 0.1200999990
-0.1474000067 -1.1584999561 0.1220000014
-0.1344999969 -1.1571999788 0.1432999969
-0.1402000040 -1.1576999426 0.1404000074
-0.1386000067 -1.1610000134 0.1384000033
-0.1348000020 -1.1615999937 0.1400000006
-0.0890000015 -1.1410000324 0.1454000026
-0.0885000005 -1.1426999569 0.1595000029
-0.0751999989 -1.1446000338 0.1571999937
-0.0738999993 -1.1391999722 0.1432999969
-0.0688000023 -1.1538000107 0.1530999988
-0.0764999986 -1.1593999863 0.1501999944
-0.0746999979 -1.1591999531 0.1358000040
-0.0671999976 -1.1505999565 0.1377000064
-0.0890000015 -1.1600999832 0.1519999951
-0.0886000022 -1.1598999500 0.1387999952
-0.0961999968 -1.1521999836 0.1430000067
-0.0978000015 -1.1523000002 0.1578000039
-0.1152999997 -1.1518000364 0.1447000057
-0.1182999983 -1.1549999714 0.1564999968
-0.1125999987 -1.1485999823 0.1579000056
-0.1103999987 -1.1440999508 0.1456999928
-0.1041999981 -1.1490000486 0.1592999995
-0.0991000012 -1.1444000006 0.1474999934
-0.0953999981 -1.1546000242 0.1456999928
-0.0979999974 -1.1556999683 0.1592999995
-0.1027999967 -1.1607999802 0.1550000012
-0.1001000032 -1.1600999832 0.1419000030
-0.1096000001 -1.1597000360 0.1415999979
-0.1121999994 -1.1611000299 0.1537999958
-0.1273999959 -1.1447000504 0.1380999982
-0.1266999990 -1.1500999928 0.1489000022
-0.1190999970 -1.1504000425 0.1500000060
-0.1169999987 -1.1454000473 0.1405999959
-0.1145000011 -1.1581000090 0.1501999944
-0.1196999997 -1.1614999771 0.1480000019
-0.1177999973 -1.1600999832 0.1374000013
-0.1129999980 -1.1555999517 0.1404999942
-0.1273999959 -1.1592999697 0.1359000057
-0.1271000057 -1.1618000269 0.1469999999
-0.1321000010 -1.1512999535 0.1380999982
-0.1314000040 -1.1559000015 0.1482000053
-0.1460999995 -1.1517000198 0.1239999980
-0.1441999972 -1.1563999653 0.1336999983
-0.1413999945 -1.1506999731 0.1351999938
-0.1430000067 -1.1449999809 0.1252000034
-0.1354999989 -1.1497999430 0.1371999979
-0.1351000071 -1.1454000473 0.1294000000
-0.1310999990 -1.1542999744 0.1377000064
-0.1331000030 -1.1614999771 0.1348000020
-0.1338000000 -1.1593999863 0.1265999973
-0.1318999976 -1.1514999866 0.1312000006
-0.1400000006 -1.1618000269 0.1326999962
-0.1418000013 -1.1592999697 0.1226999983
-0.1559000015 -1.1448999643 0.1079000011
-0.1573999971 -1.1518000364 0.1046999991
-0.1562000066 -1.1533000469 0.1146000028
-0.1542000026 -1.1476999521 0.1160999984
-0.1489000022 -1.1470999718 0.1194000021
-0.1494999975 -1.1440000534 0.1132000014
-0.1449999958 -1.1517000198 0.1194000021
-0.1456999928 -1.1588000059 0.1167000011
-0.1465000063 -1.1577999592 0.1105000004
-0.1467999965 -1.1498999596 0.1143999994
-0.1524000019 -1.1586999893 0.1145000011
-0.1528999954 -1.1571999788 0.1059999987
-0.0734999999 -1.1352000237 0.1289000064
-0.0926999971 -1.1399999857 0.1316000074
-0.0786999986 -1.1597000360 0.1597000062
-0.0670000017 -1.1483999491 0.1229000017
-0.0856999978 -1.1601999998 0.1604000032
-0.0920000002 -1.1595000029 0.1265999973
-0.0751999989 -1.1584000587 0.1209999993
-0.0945999995 -1.1521999836 0.1368000060
-0.1120999977 -1.1521999836 0.1640000045
-0.1125999987 -1.1529999971 0.1350000054
-0.1118000001 -1.1597000360 0.1253000051
-0.1072999984 -1.1523000002 0.1647000015
-0.1114000008 -1.1407999992 0.1297000051
-0.1290999949 -1.1418999434 0.1203999966
-0.1213999987 -1.1614999771 0.1537999958
-0.1253000051 -1.1617000103 0.1530999988
-0.1303000003 -1.1595000029 0.1182999983
-0.1324999928 -1.1503000259 0.1290999949
-0.1397999972 -1.1534999609 0.1405999959
-0.1474999934 -1.1497000456 0.1147999987
-0.1447000057 -1.1589000225 0.1070000008
-0.1363999993 -1.1526999474 0.1415999979
-0.1453000009 -1.1409000158 0.1088000014
-0.1518000066 -1.1509000063 0.1211000010
-0.1590999961 -1.1500999928 0.0923999995
-0.1541000009 -1.1578999758 0.0953999981
-0.1490000039 -1.1500999928 0.1230999976
-0.1565999985 -1.1414999962 0.0971999988
-0.0870999992 -1.0133999586 -0.0006000000
-0.0860000029 -1.0398999453 0.0051000002
-0.0988000035 -1.0147999525 0.0044999998
-0.1106000021 -1.0399999619 0.0043000001
-0.0974000022 -1.0414999723 0.0083999997
-0.0834000036 -1.0643999577 0.0138999997
-0.1096000001 -1.0652999878 0.0105999997
-0.0962999985 -1.0652999878 0.0165999997
-0.1280000061 -1.0835000277 -0.0467999987
-0.1318999976 -1.0837999582 -0.0274999999
-0.1162000000 -1.0828000307 -0.0562999994
-0.0966000035 -1.0814000368 -0.0776000023
-0.1067999974 -1.0819000006 -0.0671000034
-0.0815000013 -1.0839999914 0.0243999995
-0.0716999993 -1.0860999823 0.0060000001
-0.0957999974 -1.0834000111 0.0296000000
-0.1123000011 -1.0835000277 0.0220999997
-0.0687000006 -1.1301000118 0.1120999977
-0.0691000000 -1.1289999485 0.0904000029
-0.0842000023 -1.1186000109 0.0944000036
-0.0882000029 -1.1282999516 0.1136000007
-0.1039000005 -1.1196999550 0.0900999978
-0.1070000008 -1.1315000057 0.1094999984
-0.1215000004 -1.1227999926 0.0821999982
-0.1247999966 -1.1327999830 0.1017000005
-0.1371999979 -1.1268999577 0.0727000013
-0.1411000043 -1.1346999407 0.0914999992
-0.1504999995 -1.1339999437 0.0628999993
-0.1547999978 -1.1380000114 0.0820999965
-0.1586000025 -1.1442999840 0.0573999994
-0.1614000052 -1.1477999687 0.0768999979
-0.0631999969 -1.1470999718 0.1057000011
-0.0649000034 -1.1447000504 0.0848999992
-0.0732999966 -1.1591000557 0.1023999974
-0.0746999979 -1.1586999893 0.0815000013
-0.0908999965 -1.1598000526 0.1015999988
-0.0909999982 -1.1592999697 0.0798000023
-0.1534000039 -1.1571999788 0.0588999987
-0.1548999995 -1.1591999531 0.0790999979
-0.1098999977 -1.1598999500 0.0976999998
-0.1093000025 -1.1584999561 0.0754999965
-0.1274999976 -1.1610000134 0.0916000009
-0.1263999939 -1.1595000029 0.0694999993
-0.1423999965 -1.1612999439 0.0847999975
-0.1412000060 -1.1600999832 0.0635000020
-0.0803999975 -1.1115000248 0.0702999979
-0.1004000008 -1.1062999964 0.0696000010
-0.1177999973 -1.1104999781 0.0604999997
-0.1324999928 -1.1176999807 0.0496999994
-0.1446000040 -1.1286000013 0.0395000018
-0.1536999941 -1.1394000053 0.0346000008
-0.1319999993 -1.1052999496 0.0212999992
-0.1391000003 -1.1253000498 0.0132999998
-0.1459999979 -1.1375000477 0.0109000001
-0.1354999989 -1.1229000092 -0.0131000001
-0.1396999955 -1.1360000372 -0.0131999999
-0.1272000074 -1.1217000484 -0.0555000007
-0.1325999945 -1.1362999678 -0.0568999983
-0.1357000023 -1.1348999739 -0.0372000001
-0.1312000006 -1.1213999987 -0.0370999984
-0.1314000040 -1.1045000553 -0.0078999996
-0.1290999949 -1.1028000116 -0.0329000019
-0.1238000020 -1.1022000313 -0.0505999997
-0.1169999987 -1.1367000341 -0.0807999969
-0.1271000057 -1.1368999481 -0.0705000013
-0.1225999966 -1.1216000319 -0.0687000006
-0.1147999987 -1.1204999685 -0.0804999992
-0.0988000035 -1.1210000515 -0.0882000029
-0.1004000008 -1.1376999617 -0.0851000026
-0.0824000016 -1.1231000423 -0.0780000016
-0.0833000019 -1.1394000053 -0.0772000030
-0.1102000028 -1.1008000374 -0.0736000016
-0.1171000004 -1.1018999815 -0.0626000017
-0.0980999991 -1.1002999544 -0.0821999982
-0.0832000002 -1.1023000479 -0.0738999993
-0.0798999965 -1.1039999723 -0.0568999983
-0.0776999965 -1.1250000000 -0.0592000000
-0.0756999999 -1.1404999495 -0.0595999993
-0.0702000037 -1.1273000240 0.0650999993
-0.0702000037 -1.1406999826 0.0604999997
-0.1159000024 -1.0965000391 0.0399000011
-0.0969000012 -1.0944999456 0.0483000018
-0.0778999999 -1.1018999815 0.0410000011
-0.0693999976 -1.1241999865 0.0377000012
-0.0738999993 -1.1385999918 0.0335000008
-0.0755999982 -1.1380000114 0.0088999998
-0.0693999976 -1.1251000166 0.0114000002
-0.0782999992 -1.1516000032 0.0570000000
-0.0824000016 -1.1459000111 0.0307999998
-0.0832000002 -1.1447999477 0.0066999998
-0.0746000037 -1.1385999918 -0.0126000000
-0.0703999996 -1.1253000498 -0.0110999998
-0.0750000030 -1.1390000582 -0.0299999993
-0.0737000033 -1.1245000362 -0.0289999992
-0.0758000016 -1.1246000528 -0.0434000008
-0.0746000037 -1.1397999525 -0.0441999994
-0.0736000016 -1.1047999859 -0.0295000002
-0.0767000020 -1.1038000584 -0.0425000004
-0.0701000020 -1.1065000296 -0.0114000002
-0.0698999986 -1.1054999828 0.0120999999
-0.1499000043 -1.1527999640 0.0355999991
-0.1440999955 -1.1489000320 0.0118000004
-0.1377000064 -1.1460000277 -0.0119000003
-0.1332000047 -1.1462999582 -0.0355000012
-0.1275999993 -1.1476999521 -0.0538000017
-0.1218999997 -1.1481000185 -0.0654999986
-0.1000000015 -1.1470999718 -0.0771000013
-0.1134999990 -1.1475000381 -0.0742999986
-0.0878000036 -1.1483000517 -0.0716999993
-0.0820000023 -1.1500999928 -0.0575999990
-0.0806000009 -1.1509000063 -0.0445999987
-0.0816999972 -1.1471999884 -0.0144999996
-0.0803999975 -1.1498999596 -0.0308999997
-0.0671000034 -1.0870000124 -0.0146000003
-0.0703999996 -1.0859999657 -0.0324999988
-0.0753000006 -1.0849000216 -0.0445000008
-0.0829999968 -1.0822999477 -0.0715999976
-0.0790999979 -1.0835000277 -0.0560000017
-0.0922000036 -1.1555999517 0.0542999990
-0.1093999967 -1.1554000378 0.0500999987
-0.1254999936 -1.1562000513 0.0443999991
-0.1389999986 -1.1564999819 0.0392999984
-0.1354999989 -1.1531000137 0.0148000000
-0.1233000010 -1.1533000469 0.0185000002
-0.1081999987 -1.1531000137 0.0230999999
-0.0935000032 -1.1504000425 0.0277999993
-0.1297000051 -1.1512000561 -0.0088000000
-0.1190000027 -1.1523000002 -0.0051000002
-0.1054999977 -1.1524000168 -0.0016000000
-0.0930000022 -1.1502000093 0.0034000000
-0.0904000029 -1.1526000500 -0.0179999992
-0.1014000028 -1.1534999609 -0.0234999992
-0.1133000031 -1.1528999805 -0.0267999992
-0.1235999987 -1.1512000561 -0.0311999992
-0.1185000017 -1.1513999701 -0.0483000018
-0.1089000031 -1.1526000500 -0.0432999991
-0.0982000008 -1.1534999609 -0.0394000001
-0.0891999975 -1.1533999443 -0.0348000005
-0.1141000018 -1.1512000561 -0.0584000014
-0.1005999967 -1.1507999897 -0.0691000000
-0.1085999981 -1.1507999897 -0.0656000003
-0.0926000029 -1.1519000530 -0.0662999973
-0.0894000009 -1.1527999640 -0.0564000010
-0.0887999982 -1.1533999443 -0.0461000018
-0.0969000012 -1.1529999971 -0.0491000004
-0.0962999985 -1.1525000334 -0.0566000007
-0.1063999981 -1.1520999670 -0.0526000001
-0.1036000028 -1.1516000032 -0.0595000014
-0.0966000035 -1.1518000364 -0.0625000000
-0.1002999991 -1.1513999701 -0.0636999980
-0.1244999990 -1.0860999823 0.0018000000
-0.0960000008 -0.7343999743 0.0412000008
-0.0811000019 -0.7318000197 0.0372000001
-0.1128000021 -0.7329000235 0.0419000015
-0.1338000000 -0.3113999963 0.1124999970
-0.0860999972 -0.0776999965 0.1297000051
-0.0866999999 -0.0355999991 0.1238000020
-0.0859000012 -0.0570000000 0.1266999990
-0.1360000074 -0.3434999883 0.1172999963
-0.1322000027 -0.0126999998 0.0700000003
-0.1084999964 0.1403000057 0.1055999994
-0.0786999986 0.4305000007 0.0130000003
-0.0767000020 0.4275000095 0.0120000001
-0.0755999982 0.4244000018 0.0102000004
-0.0749000013 0.4221999943 0.0071000000
-0.0741999969 0.4203999937 0.0040000002
-0.0728000030 0.4199000001 0.0009000000
-0.0772999972 0.4253999889 0.0076000001
-0.0747999996 0.4280999899 0.0046000001
-0.0754000023 0.4291999936 0.0066999998
-0.0777999982 0.4275999963 0.0092000002
0.0448000021 0.4838666618 0.0934000015
0.0502000004 0.4850333631 0.0868333280
0.0454666652 0.4752000272 0.0966000035
0.0410999991 0.4733333588 0.1014666632
0.0541999973 0.4764333665 0.0843666568
0.0581666678 0.4756332934 0.0775666609
0.0659666657 0.4312666655 0.0720999986
0.0640333369 0.4363666773 0.0746999979
0.0593000017 0.3963666856 0.0833333358
0.0617333353 0.3951666653 0.0769333318
0.0289999992 0.4130333364 0.1092999950
0.0283333343 0.4171666801 0.1085666716
0.0143000009 0.4309666455 0.1128000021
0.0125666661 0.4307666719 0.1159999967
0.0241000000 0.4071999788 0.1106333360
0.0240333322 0.4113000333 0.1103333309
0.0203666668 0.4178999960 0.1112666726
0.0200666655 0.4141666591 0.1114666685
0.0144333327 0.4167333543 0.1254666597
0.0129333334 0.4156333506 0.1276999861
0.0167666674 0.4117000103 0.1181333363
0.0155000007 0.4096666574 0.1182333305
0.0135333342 0.4262333810 0.1171666682
0.0123333335 0.4259666502 0.1205999926
0.0096666664 0.4227666557 0.1319333315
0.0106666675 0.4243666828 0.1281333268
0.0175000001 0.4138999879 0.1156666651
0.0178000014 0.4125666618 0.1133666635
0.0365666710 0.3955000341 0.1077333316
0.0332333334 0.3964000046 0.1091333404
0.0153999999 0.4075666666 0.1164000034
0.0169666652 0.4082666636 0.1140000001
0.0167666674 0.3903666735 0.1193000004
0.0148999998 0.3921999931 0.1203999892
0.0414333344 0.3756666481 0.1020333394
0.0433666706 0.3728666604 0.0995333418
0.0420666635 0.3650332987 0.0981666669
0.0407666676 0.3682666719 0.1006999984
0.0355000012 0.3531666696 0.0994333327
0.0318999998 0.3536000252 0.1034333333
0.0140666664 0.3558000028 0.1178333387
0.0177999996 0.3526000082 0.1161666587
0.0204000007 0.3821333349 0.1137000024
0.0192333329 0.3833333254 0.1153999940
0.0264666677 0.3810333312 0.1101000011
0.0258666668 0.3813999891 0.1105000004
0.0223666672 0.3805999756 0.1117333397
0.0233333316 0.3801666498 0.1112666726
0.0192999989 0.3806666434 0.1139333323
0.0208000001 0.3798333406 0.1129333377
0.0085000005 0.3797333241 0.1217333302
0.0069666668 0.3811999857 0.1215666756
0.0252333339 0.3852666616 0.1126999930
0.0248666648 0.3869666755 0.1134333313
0.0291666687 0.3854666650 0.1106999889
0.0307333320 0.3847999871 0.1097333357
0.0284333322 0.3782999814 0.1089666709
0.0277666654 0.3795333207 0.1093666628
0.0274666678 0.3763333559 0.1090333387
0.0257333349 0.3763999939 0.1098999977
0.0183666665 0.3731000125 0.1156666651
0.0207666662 0.3719999790 0.1136666760
0.0289333332 0.3924333155 0.1112333313
0.0317333341 0.3917666674 0.1097333357
0.0369333364 0.3805333376 0.1057666615
0.0346000008 0.3824666739 0.1072666645
0.0356999971 0.3767999709 0.1058999971
0.0375999995 0.3741333485 0.1044333279
0.0362333320 0.3681999743 0.1040666699
0.0350000001 0.3712666929 0.1053000018
0.0297999997 0.3597666323 0.1070666686
0.0260333326 0.3609333038 0.1098000035
0.0181333330 0.3447667062 0.1135666668
0.0216000006 0.3428333700 0.1086666659
0.0382666662 0.4648000002 0.1038666666
0.0423666686 0.4666000307 0.1021000072
0.0430666693 0.4550333023 0.0986666679
0.0410999991 0.4548333585 0.0995666683
0.0533000045 0.4435666502 0.0857999995
0.0553999990 0.4405333102 0.0843999982
0.0463666655 0.4382333457 0.0935666636
0.0441333354 0.4403666556 0.0950333253
0.0360333323 0.4409333467 0.0994333327
0.0378333330 0.4386666715 0.0988999978
0.0292666648 0.4570666552 0.1017666683
0.0318333320 0.4562000036 0.1016666666
0.0172000006 0.4499666691 0.0984666646
0.0157999992 0.4490000010 0.0987666622
0.0163000003 0.4465000331 0.0988666639
0.0177666675 0.4460333288 0.0985666737
0.0375333317 0.5032333732 0.0904333293
0.0440333337 0.5054000020 0.0828666687
0.0505000018 0.4952332973 0.0813666657
0.0558999963 0.4951666594 0.0734333396
0.0595666654 0.4841666520 0.0721000060
0.0634999946 0.4821000099 0.0648000017
0.0547333360 0.3799666464 0.0862333402
0.0574333370 0.3783999979 0.0802333355
0.0572333336 0.3715000153 0.0763999969
0.0541666634 0.3662333488 0.0800333321
0.0408333316 0.3487999737 0.0879333317
0.0368000008 0.3476333320 0.0927666649
0.0573666692 0.3623000085 0.0611333363
0.0607999973 0.3684000075 0.0574666671
0.0598333366 0.3669333458 0.0400333367
0.0599333346 0.3707000017 0.0324666649
0.0460333340 0.3163333237 0.0387333333
0.0490666665 0.3219666481 0.0353333354
0.0607666671 0.3722333014 0.0658666715
0.0630333349 0.3779666424 0.0630666614
0.0662666634 0.4445999861 0.0659999996
0.0683333352 0.4395333230 0.0618666671
0.0699333325 0.4961999953 0.0418000035
0.0733666644 0.4919333458 0.0348666646
0.0466666669 0.5289333463 0.0514000021
0.0522333346 0.5271999836 0.0418000035
0.0597333349 0.5143666267 0.0465333350
0.0651000068 0.5097666383 0.0381333306
0.0771666691 0.4913333356 -0.0010333337
0.0750666633 0.4978333414 0.0033333332
0.0697333291 0.5081999898 -0.0088000000
0.0654000044 0.5164666772 -0.0029000000
0.0584333353 0.3650333583 0.0269666668
0.0600333326 0.3729000092 0.0182999987
0.0549666695 0.3478666842 0.0312666669
0.0575333349 0.3547999859 0.0248666648
0.0497999974 0.5332333446 -0.0072666667
0.0560333319 0.5257999897 -0.0156333353
0.0709000006 0.4656000137 -0.0388999991
0.0722333267 0.4571000040 -0.0356666707
0.0613666661 0.4749999940 -0.0553666651
0.0641333312 0.4653333426 -0.0520000011
0.0466333330 0.3918000162 -0.0385333337
0.0456333347 0.3972666562 -0.0462333374
0.0519333333 0.4584333003 0.0931666717
0.0545666665 0.4580333233 0.0892999992
0.0599333346 0.4670332968 0.0759666637
0.0626666620 0.4646666944 0.0696666688
0.0765333399 0.4771333635 0.0311999992
0.0746333376 0.4803666770 0.0375999995
0.0800000057 0.4774666727 0.0035333333
0.0792333335 0.4826333523 0.0080666663
0.0760999992 0.4559666812 -0.0248333346
0.0759666637 0.4489333332 -0.0231000017
0.0550666712 0.3748666346 -0.0062666666
0.0541999973 0.3817000091 -0.0125000002
0.0399000011 0.3810333312 -0.0369333327
0.0409666710 0.3754333258 -0.0308666676
0.0535999984 0.3262666762 -0.0066999998
0.0514333360 0.3314000070 -0.0102333324
0.0363666676 0.3274666667 -0.0351333320
0.0387666672 0.3325333297 -0.0307333320
0.0246333331 0.3009666502 0.0555000007
0.0289333314 0.2986666858 0.0521666668
0.0542333312 0.3156666458 -0.0167333335
0.0546333343 0.3180666268 -0.0097666662
0.0538999997 0.3922333419 -0.0254999995
0.0540333353 0.3971999884 -0.0325333327
0.0591333322 0.3939333260 -0.0124000004
0.0595999956 0.3986999989 -0.0195333343
0.0483333357 0.3165999949 -0.0304666664
0.0494000018 0.3200999796 -0.0241666660
0.0432666689 0.3470333517 -0.0208333340
0.0460333340 0.3415999711 -0.0174666662
0.0483333319 0.3754666746 -0.0195666663
0.0475666672 0.3812333345 -0.0254333336
0.0297000017 0.3814666271 -0.0470333286
0.0318999998 0.3759333193 -0.0408666693
0.0187666658 0.4244999886 0.1107666716
0.0176999997 0.4277666509 0.1106333360
0.0239999983 0.4434666634 0.0999666676
0.0222999994 0.4427666664 0.1000333354
0.0170666669 0.4729333222 0.1103666723
0.0220333338 0.4788000286 0.1086999997
0.0448666662 0.4121666849 0.1023999974
0.0458666682 0.4065667093 0.1021666750
0.0403000005 0.4404000044 0.0976333320
0.0423333347 0.4380333424 0.0966333374
0.0503000021 0.4474666417 0.0895000026
0.0490666628 0.4486666620 0.0912333354
0.0399000011 0.3832333088 0.1043333337
0.0425000004 0.3810333312 0.1020666659
0.0527999997 0.3900333345 0.0925666690
0.0558666699 0.3886000216 0.0872333348
0.0681999996 0.4320999682 0.0652999952
0.0692999959 0.4258666933 0.0618666671
0.0287333336 0.3809999526 0.1094333306
0.0277333334 0.3817999661 0.1099666655
0.0641999990 0.4422666728 0.0720333308
0.0618333332 0.4462333620 0.0757333338
0.0285666659 0.5394666791 0.0566333346
0.0358666666 0.5397667289 0.0453333370
0.0373000018 0.5396666527 -0.0194333345
0.0300000012 0.5458332896 -0.0089666676
0.0349333324 0.4800333679 -0.0789666697
0.0289666671 0.4907000065 -0.0790666640
0.0366999991 0.3920333385 -0.0507999994
0.0344333313 0.3975666761 -0.0582333319
0.0297000017 0.3269999921 -0.0398333333
0.0258333329 0.3322999775 -0.0406666659
0.0228333324 0.5070666671 0.0965333357
0.0292999987 0.5118666291 0.0904999971
0.0490666665 0.5180666447 0.0645000041
0.0429333337 0.5173333287 0.0738666654
0.0606666692 0.5041000247 0.0572000034
0.0555666648 0.5060666203 0.0655666664
0.0649333373 0.4911333323 0.0577666648
0.0688333437 0.4878333509 0.0507666655
0.0701666698 0.4756000042 0.0511999987
0.0725333393 0.4723999798 0.0449666642
0.0588333309 0.4265333414 0.0868000016
0.0593999960 0.4217000008 0.0871666670
0.0640000030 0.4040000141 0.0744333342
0.0656333342 0.4039333165 0.0684333369
0.0671666637 0.3945666850 0.0567999966
0.0654333308 0.3939333260 0.0643000007
0.0650333315 0.3806666434 0.0520666651
0.0667999983 0.3880000114 0.0497000031
0.0777999982 0.4833999872 0.0227333326
0.0790666714 0.4788333178 0.0179333333
0.0758666694 0.4937000275 0.0172333326
0.0733333305 0.4989999831 0.0229666661
0.0681999996 0.5113999844 0.0149666667
0.0634000003 0.5178999901 0.0231999997
0.0543666668 0.5303999782 0.0137000000
0.0485666655 0.5350999832 0.0239000004
0.0366999991 0.5440999866 0.0134000005
0.0295666661 0.5470333695 0.0252333339
0.0769333318 0.4882333279 -0.0119000003
0.0744000003 0.4900332987 -0.0215333346
0.0559999980 0.5136333108 -0.0407666676
0.0505000018 0.5230000019 -0.0355000012
0.0688666627 0.4988666773 -0.0302666668
0.0658666641 0.5081667304 -0.0268000010
0.0791333318 0.4788999856 -0.0074666664
0.0792666674 0.4730999768 -0.0102333333
0.0305666681 0.5348333716 -0.0402666666
0.0375333317 0.5255999565 -0.0479666702
0.0154666677 0.4002666473 0.1169666648
0.0125666661 0.4018666744 0.1184000000
0.0089999996 0.3715000153 0.1209333315
0.0109666660 0.3698000014 0.1194333360
0.0235333350 0.3366999626 0.0949333310
0.0202666651 0.3368666470 0.1015666723
0.0233999994 0.3108333349 0.0599000007
0.0271000024 0.3087999821 0.0558000021
0.0091666663 0.4115666449 0.1229333356
0.0097666671 0.4112000167 0.1220999956
0.0236999989 0.3832666874 0.1128000021
0.0233333334 0.3844666481 0.1135333404
0.0062000002 0.3890666962 0.1240666732
0.0073333331 0.3878666461 0.1233333349
0.0235000011 0.3787333071 0.1111666635
0.0248666648 0.3784999847 0.1103999987
0.0221999977 0.3772332966 0.1122333333
0.0204666667 0.3778999746 0.1135333404
0.0096666673 0.3750999868 0.1216999963
0.0080000004 0.3766333163 0.1225000024
0.0253333356 0.3828333318 0.1116333306
0.0253666695 0.3819999993 0.1111666635
0.0213999990 0.3944000006 0.1153333411
0.0230333339 0.3914333284 0.1149666682
0.0448666662 0.3394999802 0.0499333329
0.0499666668 0.3470666409 0.0456333347
0.0557333343 0.3252999783 0.0209999997
0.0545666665 0.3202666342 0.0247666687
0.0509000011 0.3456999958 -0.0081333332
0.0530000031 0.3401666582 -0.0036333334
0.0380333364 0.3589666784 -0.0277333334
0.0357666686 0.3648333549 -0.0316333324
0.0467333347 0.3323666751 -0.0192666668
0.0449000001 0.3279999793 -0.0249333326
0.0266333316 0.3652333319 -0.0401999988
0.0294333342 0.3597333431 -0.0370333344
0.0026000000 0.3667333126 -0.0498333313
0.0067333332 0.3613999784 -0.0477666669
0.0222999994 0.3276333511 0.0740000010
0.0257000010 0.3270333707 0.0685333386
0.0229333341 0.3816666603 0.1118333340
0.0224666670 0.3823666573 0.1128000021
0.0209333319 0.3847666681 0.1152333394
0.0197333321 0.3865000010 0.1165999994
0.0042666667 0.4073666632 0.1251000017
0.0049999999 0.4072999954 0.1238666698
0.0100000007 0.4074666500 0.1196333393
0.0115999999 0.4074999988 0.1191333309
0.0138999997 0.4117332995 0.1231999993
0.0131666660 0.4107666910 0.1220333353
0.0095666656 0.4129999876 0.1283999979
0.0086666672 0.4131666720 0.1306333393
0.0057999999 0.4087666571 0.1237333342
0.0064666667 0.4086999893 0.1227000058
0.0102666663 0.4088000059 0.1197333336
0.0093333339 0.4090333283 0.1199666634
0.0115000000 0.4111333191 0.1229000017
0.0110333329 0.4108999968 0.1220000014
0.0088666668 0.4122999907 0.1263999939
0.0082000000 0.4124000072 0.1275333315
0.0053333328 0.4324333370 0.1280000061
0.0033666666 0.4306333363 0.1308333278
0.0036333334 0.4180333614 0.1372333318
0.0056666671 0.4153333604 0.1354999989
0.0166666675 0.3179999888 0.0692666695
0.0139999995 0.3140666485 0.0686333403
0.0326333344 0.4883999825 0.1010666713
0.0386000015 0.4918999970 0.0954999998
0.0105666667 0.4947333336 0.1053666696
0.0052000000 0.4881999791 0.1078666672
0.0560666658 0.4081000090 0.0914666653
0.0595999993 0.4061000347 0.0855666697
0.0325333327 0.3874000013 0.1092333272
0.0348000005 0.3865000010 0.1076666713
0.0559333302 0.4627666473 0.0863333344
0.0584000014 0.4614333212 0.0807666704
0.0373333320 0.3899666369 0.1067666709
0.0400999971 0.3886333406 0.1049333289
0.0514000021 0.4029333591 0.0964000002
0.0506666712 0.3963666856 0.0963333324
0.0534999967 0.4691666663 0.0883333310
0.0501666665 0.4690999985 0.0940000042
0.0244333316 0.3812666833 0.1108333394
0.0241999999 0.3817333281 0.1113666594
0.0627666637 0.4172666967 0.0812000036
0.0626666620 0.4113667011 0.0803333297
0.0285000000 0.4594999850 0.1028999984
0.0312666669 0.4611000121 0.1037333310
0.0362000018 0.4594666660 0.1023333371
0.0394000001 0.4603666365 0.1021666750
0.0499666668 0.4630999863 0.0958666727
0.0465333350 0.4624666870 0.0991000012
0.0586666651 0.4400666654 0.0812333301
0.0611000024 0.4360666573 0.0796666667
0.0549999960 0.4226000011 0.0921333358
0.0537666678 0.4173333347 0.0940666720
0.0332666673 0.4265333414 0.1037000045
0.0313000008 0.4300666749 0.1029333249
0.0322333314 0.4677000046 0.1067000031
0.0284333322 0.4649000168 0.1064000055
0.0119999992 0.4602333307 0.1088333353
0.0116999997 0.4560999870 0.1063333377
0.0102000004 0.4443333447 0.1082333326
0.0122000007 0.4428000152 0.1050999984
0.0450333357 0.4529999793 0.0969666615
0.0466666669 0.4528666735 0.0955666676
0.0213333350 0.4338666499 0.1042000055
0.0198666677 0.4364000261 0.1033666730
0.0481000058 0.4177666605 0.0992333293
0.0448333323 0.4232333004 0.1002333388
0.0592333339 0.4443333149 0.0799666643
0.0568999983 0.4473333359 0.0828999951
0.0542333312 0.4311000109 0.0900000036
0.0527999997 0.4350333214 0.0889999941
0.0656333342 0.4056666791 -0.0059666666
0.0627333298 0.3981333077 -0.0055666664
0.0671999976 0.3891333342 0.0219999999
0.0673333332 0.3912666738 0.0195000004
0.0794000030 0.4484000206 0.0016666666
0.0792666674 0.4463000000 0.0038333330
0.0783999935 0.4469666481 0.0129333334
0.0781333372 0.4443333149 0.0122666666
0.0788666680 0.4573333263 0.0169333331
0.0777666643 0.4528000057 0.0193000007
0.0730333328 0.4450000226 0.0366333313
0.0737666711 0.4438666403 0.0308333337
0.0681333318 0.3920666873 0.0338000022
0.0681666657 0.3933999836 0.0400666669
0.0613999963 0.3820666373 0.0191999990
0.0619333349 0.3875333369 0.0144666666
0.0751333311 0.4483000040 0.0271666646
0.0764000043 0.4539999962 0.0261000004
0.0729000047 0.4816000164 -0.0313999988
0.0745666698 0.4728666544 -0.0289666653
0.0494333319 0.5054666400 -0.0570333339
0.0540666692 0.4951333702 -0.0582666695
0.0636333302 0.4939999878 -0.0454666726
0.0664666668 0.4839999974 -0.0446999967
0.0778333321 0.4706000090 -0.0188666657
0.0366000012 0.5045666695 -0.0682666674
0.0301999990 0.5153333545 -0.0644666627
0.0144999996 0.4865000248 -0.0845666602
0.0070999996 0.4981666803 -0.0812000036
0.0610666685 0.4458999932 -0.0544333346
0.0585999973 0.4544999897 -0.0595333390
0.0692000017 0.4406666756 -0.0390333347
0.0679333359 0.4482333362 -0.0436666720
0.0733666644 0.4424999952 -0.0292999987
0.0732666627 0.4364666641 -0.0254333317
0.0495666675 0.4514333308 -0.0694999993
0.0453999974 0.4607000053 -0.0738666654
0.0342000015 0.4555666745 -0.0810333341
0.0282000005 0.4647666514 -0.0839999989
0.0722000003 0.4285000265 0.0370000005
0.0723333359 0.4363666773 0.0405999981
0.0527333319 0.4082666636 -0.0473333336
0.0510666668 0.4148666859 -0.0546333343
0.0603666715 0.4076999724 -0.0326333307
0.0600666665 0.4133000076 -0.0397333354
0.0649666712 0.4090999663 -0.0195999984
0.0656000003 0.4131332934 -0.0256666671
0.0417000018 0.4093999863 -0.0609666705
0.0385999978 0.4171666801 -0.0675333366
0.0219999999 0.4096666574 -0.0732666627
0.0283666681 0.4176666737 -0.0740333423
0.0724666640 0.3993666470 0.0228333324
0.0718666688 0.3968000114 0.0239999983
0.0641000047 0.3808332980 0.0279000010
0.0639666691 0.3843333423 0.0232999995
0.0717333332 0.4212666750 0.0415333323
0.0712000057 0.4152666628 0.0373999998
0.0709333345 0.4269999564 0.0538666658
0.0712333322 0.4200666845 0.0497333296
0.0372333340 0.4183333218 0.1052666679
0.0387333333 0.4136333466 0.1059333310
0.0133000007 0.4354000092 0.1109666601
0.0152333332 0.4351333082 0.1081333384
0.0459333360 0.3854333460 0.0996999964
0.0490333326 0.3836666644 0.0958666727
0.0466333330 0.3638333380 0.0920000076
0.0498000048 0.3673666716 0.0890666619
0.0474666655 0.3498666584 0.0704666600
0.0421333313 0.3455666602 0.0766333342
0.0245333333 0.4279666841 0.1057333350
0.0260333344 0.4246666431 0.1067666709
0.0403000005 0.3987333477 0.1058333293
0.0402666666 0.4034999907 0.1060333326
0.0212333333 0.3323000073 0.0866666660
0.0249333326 0.3324666917 0.0800999999
0.0055000000 0.4450333118 0.1160999909
0.0033333332 0.4434666634 0.1194666624
0.0442000031 0.3906666338 0.1019666716
0.0451666676 0.3952333033 0.1019000039
0.0697999969 0.4027333260 0.0417999960
0.0704333261 0.4076333046 0.0369666666
0.0054333336 0.4528333247 0.1117333248
0.0033333332 0.4505000114 0.1138333380
0.0149666667 0.5524333119 0.0155666666
0.0074000000 0.5528333187 0.0282333344
0.0155666666 0.5350999832 -0.0494999997
0.0076666675 0.5428000093 -0.0388000011
0.0192999989 0.4057666361 0.1123999953
0.0195000004 0.4017666578 0.1138666645
0.0268333331 0.3975333273 0.1112999991
0.0232333336 0.3979333341 0.1130333319
0.0082333339 0.3549999893 0.1202333346
0.0113666663 0.3509000242 0.1195000038
0.0085666664 0.4348333776 0.1214333400
0.0100333327 0.4353666604 0.1177999973
0.0109333331 0.4181666374 0.1313666701
0.0091000004 0.4158667028 0.1329666674
0.0087666670 0.4291666746 0.1268666685
0.0098999999 0.4299666882 0.1230666637
0.0139666675 0.4216666520 0.1215999946
0.0134333335 0.4208666384 0.1253333241
0.0065000001 0.3969333172 0.1234000027
0.0056666671 0.3954000175 0.1238999963
0.0076333336 0.3839999735 0.1213666573
0.0064666667 0.3853000104 0.1224000081
0.0238333326 0.4585666656 0.1024333313
0.0205333326 0.4589666426 0.1033999994
0.0185666662 0.4417333603 0.1006999984
0.0163666662 0.4415999949 0.1015666723
0.0344666652 0.4785000086 0.1038333401
0.0297000017 0.4746666849 0.1073000059
0.0471999981 0.4835666716 -0.0694000050
0.0516666658 0.4734333456 -0.0672666728
0.0240666661 0.3923333585 -0.0599666648
0.0203333348 0.3973999918 -0.0661000013
0.0173000004 0.3817333281 -0.0546333343
0.0206666663 0.3763999939 -0.0491333306
0.0144999996 0.3332999945 -0.0449333340
0.0188999996 0.3275333345 -0.0447000004
0.0319333337 0.3140999973 -0.0454333313
0.0273666680 0.3177333176 -0.0450333320
0.0261000004 0.5245999694 0.0811333358
0.0332333334 0.5278999805 0.0720666721
0.0051666670 0.3993333280 0.1231999993
0.0059333332 0.4008333385 0.1227666736
0.0077666664 0.4121333361 0.1257999986
0.0082000000 0.4120000303 0.1248333380
0.0148333339 0.3882999718 0.1202666685
0.0164666679 0.3865333498 0.1187000051
0.0144000007 0.3498333395 -0.0442333333
0.0182666685 0.3438999951 -0.0429666638
0.0055000000 0.4061333239 0.1228333339
0.0065333336 0.4067666531 0.1220333353
0.0119999992 0.4131666720 0.1270666569
0.0121333329 0.4122999907 0.1253000051
0.0067000003 0.4078666866 0.1220333353
0.0104666660 0.4118333161 0.1242666617
0.0103666661 0.4120333195 0.1255000085
0.0251000002 0.4949333370 0.1020333394
0.0192666668 0.4891666472 0.1062000021
0.0180000011 0.4623999894 0.1069666669
0.0209333319 0.4659999907 0.1086666584
0.0165333319 0.4384333193 0.1036000028
0.0144000007 0.4387666881 0.1057333350
0.0089333327 0.4407333434 0.1153333262
0.0104666660 0.4405666590 0.1116999984
0.0113000004 0.4055000246 0.1191999987
0.0131333331 0.4050000012 0.1177333295
0.0057333335 0.4043666422 0.1225999966
0.0048666666 0.4031666517 0.1230666637
0.0027666667 0.4026666582 0.1237000003
0.0033666666 0.4040333331 0.1238333359
0.0348000005 0.4062000215 0.1085000038
0.0342666693 0.4107333422 0.1081666648
0.0297999997 0.4004666805 0.1099999920
0.0296000000 0.4043999910 0.1099333391
0.0330666639 0.4398000240 0.1002666652
0.0314333327 0.4418666363 0.1003666744
0.0254666675 0.3490333259 -0.0392000005
0.0286333337 0.3431999981 -0.0371333361
0.0379333347 0.4556333125 0.1008000001
0.0360000022 0.4570000172 0.1013999954
0.0401000045 0.4223333299 0.1027333364
0.0376333334 0.4266333282 0.1022333279
0.0306000020 0.4234666824 0.1056999937
0.0320999995 0.4195666611 0.1067666635
0.0063333339 0.4116666615 0.1309333295
0.0056666662 0.4109666646 0.1288333386
0.0066333334 0.4118666649 0.1276666671
0.0064666667 0.4116333425 0.1264999956
0.0032333334 0.4113999903 0.1338666528
0.0043333336 0.4104333222 0.1316333264
0.0079000005 0.4109666646 0.1229333356
0.0073000002 0.4112333357 0.1241666675
0.0478000008 0.4322666824 0.0947666690
0.0514000021 0.4293333292 0.0934666619
0.0564333349 0.3591333330 0.0506999977
0.0506333299 0.3518666923 0.0553999990
0.0610000007 0.3858333528 0.0748333335
0.0630666688 0.3846666813 0.0681999996
0.0482333340 0.3046333492 0.0351666659
0.0508333333 0.3100333214 0.0316666663
0.0462666638 0.3575666845 -0.0168333333
0.0439999998 0.3638000190 -0.0210999995
0.0480333306 0.3341666758 0.0398666672
0.0445333309 0.3279666603 0.0429333337
0.0044666664 0.3889000118 0.1243000031
0.0038000001 0.3875999749 0.1238666698
0.0147000002 0.5471333861 0.0491999984
0.0072666667 0.5439999700 0.0603999980
0.0044333334 0.4078666270 -0.0756999999
0.0111333327 0.4154666662 -0.0786666647
0.0551666655 0.4343999922 -0.0589666665
0.0574333332 0.4267333448 -0.0528666675
0.0645999983 0.4306666851 -0.0436999984
0.0655666664 0.4238333702 -0.0378666669
0.0425666682 0.4387333393 -0.0727333352
0.0456999987 0.4302999973 -0.0672999993
0.0253000017 0.4328333437 -0.0808666721
0.0324000008 0.4407666624 -0.0798000023
0.0151666664 0.5131332874 -0.0719000027
0.0074999998 0.5236666203 -0.0646333396
0.0745999962 0.4268333614 0.0202333350
0.0745666698 0.4306666851 0.0210999995
0.0144000007 0.3078999817 0.0651666671
0.0175666660 0.3055333197 0.0621666647
0.0571333319 0.3091333508 0.0154666668
0.0555000007 0.3122999966 0.0222333316
0.0414333344 0.3194333315 -0.0356333293
0.0393333323 0.3153333366 -0.0407333337
0.0157333333 0.3178666830 -0.0487000011
0.0203333329 0.3133666813 -0.0498666652
0.0653666630 0.4203000069 0.0750999972
0.0646666661 0.4262666702 0.0766666606
0.0502000004 0.4414333403 0.0888666734
0.0493000001 0.4438000023 0.0894000009
0.0648333356 0.4711999893 0.0639666691
0.0676000044 0.4680000246 0.0573666655
0.0677666664 0.4190666676 0.0670999959
0.0676999986 0.4122333527 0.0644666627
0.0514666699 0.3623999655 -0.0090666665
0.0533333309 0.3559666574 -0.0037333334
0.0614999980 0.4280667007 0.0823999941
0.0598666668 0.4327666759 0.0828000009
0.0477333367 0.4551999867 0.0959666669
0.0502000004 0.4548999965 0.0938333347
0.0700666606 0.4278000295 -0.0293333326
0.0697999969 0.4227000177 -0.0242333338
0.0202666651 0.4529999793 0.0995333269
0.0178999994 0.4526333511 0.0994333327
0.0700666681 0.4423666894 0.0538333356
0.0715666637 0.4360666573 0.0492666662
0.0098000001 0.4520666599 0.1060000062
0.0086666672 0.4496999979 0.1087999940
0.0055666673 0.4313666821 -0.0842666700
0.0133666666 0.4407333434 -0.0857000053
0.0668333396 0.3859000206 0.0290333331
0.0662666634 0.3851999938 0.0342666656
0.0400333330 0.3595999777 0.0979666710
0.0366666652 0.3589999974 0.1010000035
0.0169666652 0.3797333241 0.1161666736
0.0150333345 0.3809000254 0.1172666773
0.0287333336 0.3695333302 0.1083000004
0.0259666666 0.3701666594 0.1099666730
0.0308999997 0.3646999896 0.1066333354
0.0341666676 0.3643666804 0.1045666635
0.0469000004 0.3575333357 0.0876000002
0.0428999960 0.3549333513 0.0915666595
0.0634666681 0.3746666610 0.0476999991
0.0634333342 0.3763667047 0.0406999998
0.0164333340 0.3773000240 0.1171333268
0.0184333343 0.3762999773 0.1155000031
0.0501666665 0.3557000160 0.0777999982
0.0542666651 0.3608666956 0.0731666684
0.0228666663 0.4227666855 0.1086666659
0.0236666668 0.4191666842 0.1093999967
0.0537333302 0.3331999779 0.0285000000
0.0555666685 0.3393333256 0.0242000017
0.0378333330 0.3423333168 -0.0284333322
0.0348666683 0.3480333388 -0.0310666654
0.0064000003 0.3452666700 -0.0458999984
0.0025000002 0.3511999846 -0.0466666669
0.0229000002 0.3171333373 0.0635333359
0.0258999988 0.3217000067 0.0630000010
0.0132666668 0.3243666589 0.0782333314
0.0162666664 0.3231666982 0.0742000043
0.0187999997 0.3604666293 -0.0436333306
0.0150333336 0.3660999835 -0.0463999994
0.0156666655 0.4218333662 0.1150999963
0.0173666682 0.4215333462 0.1126333252
0.0152666671 0.4136999846 0.1227333322
0.0163333341 0.4140333235 0.1204333305
0.0160333347 0.4178666770 0.1194333360
0.0165333319 0.4177666605 0.1163666621
0.0276999995 0.4359999895 0.1017666683
0.0261666682 0.4385333061 0.1012333333
0.0098000001 0.4100666940 0.1204999983
0.0092000002 0.4104666710 0.1210333332
0.0046666665 0.4090999663 0.1263333261
0.0044999998 0.4093999863 0.1280999929
0.0138333328 0.4095333517 0.1200999990
0.0125333332 0.4089333117 0.1196666583
0.0056666662 0.4104333222 0.1258999854
0.0060666665 0.4101666510 0.1245333329
0.0113333324 0.4095666409 0.1202666685
0.0110333329 0.4102666676 0.1208666563
0.0026333332 0.4086000025 0.1295000017
0.0034666667 0.4082666636 0.1280666739
0.0271333326 0.4302999973 0.1038999930
0.0253999997 0.4332666397 0.1030333340
0.0491999984 0.4395666420 0.0905333385
0.0471999981 0.4411333501 0.0922000036
0.0188333336 0.4322666824 0.1068333387
0.0203000009 0.4293333292 0.1074999943
0.0080333343 0.4097000062 0.1212000027
0.0073333331 0.4098333418 0.1222666726
0.0253666658 0.3797666728 0.1101666689
0.0262666661 0.3798999786 0.1097666621
0.0475333333 0.3764666617 0.0957333371
0.0501666665 0.3742000163 0.0914333239
0.0692000017 0.4044333398 0.0515666641
0.0695333257 0.4120999873 0.0550999977
0.0460333340 0.4580999911 0.0985333323
0.0429999977 0.4578000009 0.0998333320
0.0496666618 0.4461666644 0.0894333348
0.0507333316 0.4443333149 0.0881666616
0.0391333364 0.4311666489 0.1001333296
0.0367333330 0.4345666468 0.1000333354
0.0136666670 0.4509666860 0.1008000001
0.0121333329 0.4493333399 0.1023000106
0.0130000003 0.4454333484 0.1019666716
0.0150333317 0.4445666373 0.1005666628
0.0230333339 0.4395999908 0.1009999886
0.0209000017 0.4388666451 0.1014999971
0.0454999991 0.4292666614 0.0976000056
0.0422666669 0.4328999817 0.0979999974
0.0542333312 0.4460999966 0.0855666623
0.0523000024 0.4481666982 0.0879999995
0.0254999995 0.4552333355 0.1010000035
0.0227999985 0.4555333555 0.1007666662
0.0203000009 0.4445333481 0.0992333293
0.0187000018 0.4442333281 0.0994000062
0.0332666673 0.4335666597 0.1013666689
0.0313999988 0.4365333319 0.1010666713
0.0557666682 0.4351666868 0.0861999989
0.0537333339 0.4389333427 0.0862333402
0.0142999999 0.4548666477 0.1026999950
0.0171333328 0.4555666745 0.1016333327
0.0267999992 0.4429000318 0.1003333330
0.0282333326 0.4411333501 0.1006333306
0.0031999999 0.3913666308 -0.0648000017
0.0091666663 0.3966666758 -0.0683666691
0.0788333341 0.4344999790 0.0101333335
0.0791999996 0.4329666793 0.0111000007
0.0822999999 0.4368999898 0.0144666666
0.0824000016 0.4390666485 0.0145333335
0.0804333314 0.4407666624 0.0150666675
0.0794000030 0.4423333108 0.0133999996
0.0788333341 0.4375666678 0.0172666665
0.0785333291 0.4402666986 0.0164666660
0.0836333334 0.4395000041 0.0128999995
0.0839000046 0.4410666525 0.0126666678
0.0807666704 0.4427333176 0.0122333327
0.0794999972 0.4435333312 0.0100999996
0.0830000043 0.4425333440 0.0126333339
0.0850000009 0.4435333312 0.0094333328
0.0833333358 0.4437999725 0.0101666665
0.0771000013 0.4435000122 0.0180333331
0.0777666643 0.4471333027 0.0162666664
0.0873333290 0.4435000122 0.0049666665
0.0852000043 0.4444333315 0.0058666668
0.0888333321 0.4408333302 -0.0001000000
0.0868666694 0.4428000152 0.0008333333
0.0718333349 0.4033333361 0.0238333326
0.0722666681 0.4060333669 0.0215666667
0.0893333331 0.4357333183 -0.0037333332
0.0873333439 0.4381666481 -0.0034666667
0.0892999992 0.4315666854 -0.0052333339
0.0870666578 0.4293666780 -0.0062000002
0.0883666649 0.4243666828 -0.0058666668
0.0860666633 0.4219666719 -0.0061333333
0.0869666636 0.4170333147 -0.0047333334
0.0847666636 0.4142999649 -0.0044999998
0.0851666629 0.4097000062 -0.0019666667
0.0826666653 0.4063666761 -0.0009333333
0.0879333317 0.4400000274 0.0022666666
0.0895000026 0.4395667017 0.0008666666
0.0827666670 0.4418333471 -0.0004666667
0.0807000026 0.4426333606 0.0012333334
0.0805333331 0.4442000091 0.0043666665
0.0826666728 0.4445333481 0.0034333335
0.0813999996 0.4443666637 0.0075333328
0.0798000023 0.4438999891 0.0078666667
0.0862333402 0.4415666759 0.0066000000
0.0877333283 0.4419666529 0.0054333336
0.0751333386 0.4390666783 0.0224666670
0.0758333355 0.4434666634 0.0221333355
0.0733999982 0.4321999848 0.0260666665
0.0737666711 0.4372999966 0.0269333348
0.0764333382 0.4271000326 0.0040000002
0.0762333274 0.4272333384 0.0043333336
0.0746000037 0.4199666679 0.0182333346
0.0747000054 0.4173999727 0.0170666669
0.0731333420 0.4117999971 0.0178333335
0.0740333349 0.4141666889 0.0169333331
0.0736333355 0.4132333696 0.0151333334
0.0732333362 0.4148666859 0.0147666661
0.0730666667 0.4194333553 0.0147000002
0.0741999969 0.4176332951 0.0152999992
0.0729666650 0.4117999971 0.0140333334
0.0735333338 0.4106666744 0.0137333320
0.0719000027 0.4129000008 0.0130000003
0.0724333301 0.4121666849 0.0128666675
0.0720333382 0.4141666889 0.0137999998
0.0713666677 0.4150666296 0.0130333332
0.0714333355 0.4175666571 0.0134000005
0.0711000040 0.4183999598 0.0117999995
0.0726333335 0.4106333256 0.0211666673
0.0726666674 0.4137000144 0.0234666672
0.0736000016 0.4187999964 0.0214333329
0.0733666644 0.4227000177 0.0230333339
0.0697000027 0.3971999884 0.0288000014
0.0702333376 0.3953999579 0.0261333343
0.0697333366 0.3906999826 0.0234666672
0.0692333281 0.3909666538 0.0259000007
0.0706999972 0.4025666714 0.0276666675
0.0706666708 0.4059666693 0.0302666668
0.0700666681 0.4105333388 0.0002333333
0.0673333332 0.4057666361 0.0003333332
0.0802333355 0.3993999958 0.0047333334
0.0825000033 0.4029333591 0.0028000001
0.0764999986 0.4330999851 0.0186666679
0.0767000020 0.4364000261 0.0191666670
0.0717666671 0.3923666477 0.0195000004
0.0742666647 0.3923666775 0.0170333330
0.0796666667 0.4360333383 -0.0023999999
0.0828000009 0.4383000135 -0.0030000003
0.0821333304 0.4319000244 -0.0048666666
0.0790333375 0.4298000038 -0.0038666667
0.0760666654 0.4011000097 0.0040666666
0.0720333382 0.4001666605 0.0078666667
0.0784333348 0.4093333185 -0.0009666666
0.0741000026 0.4076000154 0.0020999999
0.0806000009 0.4174000025 -0.0042999997
0.0767666698 0.4157666862 -0.0018000001
0.0831333324 0.4073333442 0.0032333334
0.0826333389 0.4043666422 0.0048000002
0.0816666707 0.4248666763 -0.0054666665
0.0783999935 0.4230333269 -0.0038666667
0.0849666670 0.4099666774 0.0008666667
0.0862999931 0.4107999802 -0.0008666666
